ply
format ascii 1.0
comment VCGLIB generated
element vertex 927
property float x
property float y
property float z
property float nx
property float ny
property float nz
property uchar red
property uchar green
property uchar blue
property uchar alpha
element face 0
property list uchar int vertex_indices
end_header
0.06555099 -0.1330644 -0.484 0 0 0 146 146 146 255 
0.06664218 -0.1330644 -0.484 0 0 0 146 146 146 255 
0.06773335 -0.1330644 -0.484 0 0 0 147 147 147 255 
0.06882454 -0.1330644 -0.484 0 0 0 147 147 147 255 
0.06991572 -0.1330644 -0.484 0 0 0 149 149 149 255 
0.07086019 -0.1327895 -0.483 0 0 0 147 147 147 255 
0.07194912 -0.1327895 -0.483 0 0 0 147 147 147 255 
0.07303805 -0.1327895 -0.483 0 0 0 149 149 149 255 
0.07397351 -0.1325146 -0.482 0 0 0 150 150 151 255 
0.07506018 -0.1325146 -0.482 0 0 0 149 149 150 255 
0.07614686 -0.1325146 -0.482 0 0 0 149 149 150 255 
0.07723353 -0.1325146 -0.482 0 0 0 150 150 151 255 
0.07832021 -0.1325146 -0.482 0 0 0 149 149 150 255 
0.07940688 -0.1325146 -0.482 0 0 0 149 149 150 255 
0.08049355 -0.1325146 -0.482 0 0 0 150 150 151 255 
0.08174948 -0.1327895 -0.483 0 0 0 149 149 150 255 
0.0828384 -0.1327895 -0.483 0 0 0 147 147 148 255 
0.08392733 -0.1327895 -0.483 0 0 0 147 147 148 255 
0.08501627 -0.1327895 -0.483 0 0 0 149 149 150 255 
0.08610519 -0.1327895 -0.483 0 0 0 147 147 148 255 
0.08737465 -0.1330644 -0.484 0 0 0 147 147 148 255 
0.08846582 -0.1330644 -0.484 0 0 0 147 147 148 255 
0.08955701 -0.1330644 -0.484 0 0 0 149 149 150 255 
0.0906482 -0.1330644 -0.484 0 0 0 149 149 150 255 
0.09173938 -0.1330644 -0.484 0 0 0 149 149 150 255 
0.09302236 -0.1333393 -0.485 0 0 0 149 149 150 255 
0.09430985 -0.1336143 -0.486 0 0 0 149 149 150 255 
0.09579816 -0.1341641 -0.488 0 0 0 149 149 150 255 
0.09709692 -0.134439 -0.489 0 0 0 149 149 150 255 
0.09840019 -0.134714 -0.49 0 0 0 150 150 151 255 
0.09970798 -0.1349889 -0.491 0 0 0 151 151 152 255 
0.1008149 -0.1349889 -0.491 0 0 0 151 151 152 255 
0.1021295 -0.1352638 -0.492 0 0 0 151 150 154 255 
0.1032387 -0.1352638 -0.492 0 0 0 150 149 153 255 
0.1043479 -0.1352638 -0.492 0 0 0 151 150 154 255 
0.1054571 -0.1352638 -0.492 0 0 0 152 151 155 255 
0.106783 -0.1355388 -0.493 0 0 0 152 151 155 255 
0.1078944 -0.1355388 -0.493 0 0 0 152 151 155 255 
0.1090059 -0.1355388 -0.493 0 0 0 152 151 155 255 
0.1101174 -0.1355388 -0.493 0 0 0 152 151 155 255 
0.1112289 -0.1355388 -0.493 0 0 0 152 151 155 255 
0.1123403 -0.1355388 -0.493 0 0 0 153 152 156 255 
0.1134518 -0.1355388 -0.493 0 0 0 154 153 157 255 
0.1143309 -0.1352638 -0.492 0 0 0 154 153 157 255 
0.1154401 -0.1352638 -0.492 0 0 0 155 154 158 255 
0.1165493 -0.1352638 -0.492 0 0 0 155 154 158 255 
0.1234765 -0.1074963 -0.391 0 0 0 141 146 149 255 
0.12404 -0.1072213 -0.39 0 0 0 143 146 149 255 
0.1249192 -0.1072213 -0.39 0 0 0 142 145 148 255 
0.1257985 -0.1072213 -0.39 0 0 0 142 145 148 255 
0.1266778 -0.1072213 -0.39 0 0 0 143 146 149 255 
0.127557 -0.1072213 -0.39 0 0 0 143 146 149 255 
0.1284363 -0.1072213 -0.39 0 0 0 143 146 149 255 
0.1296471 -0.1074963 -0.391 0 0 0 143 146 149 255 
0.1305286 -0.1074963 -0.391 0 0 0 143 146 149 255 
0.1317462 -0.1077712 -0.392 0 0 0 143 146 149 255 
0.13263 -0.1077712 -0.392 0 0 0 143 146 149 255 
0.1335138 -0.1077712 -0.392 0 0 0 143 146 149 255 
0.1343975 -0.1077712 -0.392 0 0 0 142 145 148 255 
0.1352813 -0.1077712 -0.392 0 0 0 142 145 148 255 
0.1361651 -0.1077712 -0.392 0 0 0 143 146 149 255 
0.1370488 -0.1077712 -0.392 0 0 0 142 145 148 255 
0.1444866 -0.1080461 -0.393 0 0 0 135 139 139 255 
0.1453726 -0.1080461 -0.393 0 0 0 133 137 137 255 
0.1462587 -0.1080461 -0.393 0 0 0 129 133 133 255 
-0.2150817 -0.1336012 -0.482 0 0 0 127 128 120 255 
-0.2139951 -0.1336012 -0.482 0 0 0 128 129 121 255 
-0.2129084 -0.1336012 -0.482 0 0 0 128 129 121 255 
-0.2118217 -0.1336012 -0.482 0 0 0 127 128 120 255 
-0.210735 -0.1336012 -0.482 0 0 0 127 128 120 255 
-0.2096484 -0.1336012 -0.482 0 0 0 129 128 120 255 
-0.2085617 -0.1336012 -0.482 0 0 0 129 128 120 255 
-0.207475 -0.1336012 -0.482 0 0 0 129 128 120 255 
-0.2063883 -0.1336012 -0.482 0 0 0 125 126 118 255 
-0.2053017 -0.1336012 -0.482 0 0 0 126 127 119 255 
-0.204215 -0.1336012 -0.482 0 0 0 125 126 118 255 
-0.2031283 -0.1336012 -0.482 0 0 0 124 124 118 255 
-0.2020416 -0.1336012 -0.482 0 0 0 125 125 119 255 
-0.200955 -0.1336012 -0.482 0 0 0 125 125 119 255 
-0.1998683 -0.1336012 -0.482 0 0 0 124 124 118 255 
-0.1987816 -0.1336012 -0.482 0 0 0 125 125 119 255 
-0.1976949 -0.1336012 -0.482 0 0 0 125 125 119 255 
-0.1962004 -0.1333241 -0.481 0 0 0 124 124 118 255 
-0.195116 -0.1333241 -0.481 0 0 0 124 124 118 255 
-0.1936281 -0.1330469 -0.48 0 0 0 123 123 117 255 
-0.1921448 -0.1327697 -0.479 0 0 0 123 123 117 255 
-0.1910649 -0.1327697 -0.479 0 0 0 120 120 114 255 
-0.1895884 -0.1324925 -0.478 0 0 0 121 121 115 255 
-0.1885107 -0.1324925 -0.478 0 0 0 123 123 117 255 
-0.187041 -0.1322153 -0.477 0 0 0 123 123 117 255 
-0.1859656 -0.1322153 -0.477 0 0 0 123 123 117 255 
-0.1848902 -0.1322153 -0.477 0 0 0 121 121 115 255 
-0.1842001 -0.1324925 -0.478 0 0 0 118 119 116 255 
-0.1831224 -0.1324925 -0.478 0 0 0 118 119 116 255 
-0.1820448 -0.1324925 -0.478 0 0 0 119 121 115 255 
-0.1809671 -0.1324925 -0.478 0 0 0 118 120 114 255 
-0.1802658 -0.1327697 -0.479 0 0 0 117 119 113 255 
-0.1791859 -0.1327697 -0.479 0 0 0 116 118 112 255 
-0.1784778 -0.1330469 -0.48 0 0 0 117 119 113 255 
-0.1777652 -0.1333241 -0.481 0 0 0 118 120 114 255 
-0.1766808 -0.1333241 -0.481 0 0 0 119 121 115 255 
-0.1755964 -0.1333241 -0.481 0 0 0 119 121 115 255 
-0.1748748 -0.1336012 -0.482 0 0 0 119 121 115 255 
-0.1737881 -0.1336012 -0.482 0 0 0 118 120 114 255 
-0.1727014 -0.1336012 -0.482 0 0 0 121 121 115 255 
-0.1712587 -0.1333241 -0.481 0 0 0 121 121 115 255 
-0.1701743 -0.1333241 -0.481 0 0 0 123 123 117 255 
-0.1687384 -0.1330469 -0.48 0 0 0 121 121 115 255 
-0.1676562 -0.1330469 -0.48 0 0 0 121 121 115 255 
-0.166574 -0.1330469 -0.48 0 0 0 121 121 115 255 
-0.1654918 -0.1330469 -0.48 0 0 0 121 121 115 255 
-0.1644097 -0.1330469 -0.48 0 0 0 121 121 115 255 
-0.1633275 -0.1330469 -0.48 0 0 0 123 123 117 255 
-0.1625834 -0.1333241 -0.481 0 0 0 123 123 117 255 
-0.1611632 -0.1330469 -0.48 0 0 0 123 123 117 255 
-0.160081 -0.1330469 -0.48 0 0 0 124 124 118 255 
-0.1589989 -0.1330469 -0.48 0 0 0 123 123 117 255 
-0.1575877 -0.1327697 -0.479 0 0 0 123 123 117 255 
-0.1565078 -0.1327697 -0.479 0 0 0 123 123 117 255 
-0.1554279 -0.1327697 -0.479 0 0 0 124 124 118 255 
-0.154348 -0.1327697 -0.479 0 0 0 124 124 118 255 
-0.1532681 -0.1327697 -0.479 0 0 0 124 124 118 255 
-0.1521882 -0.1327697 -0.479 0 0 0 124 124 118 255 
-0.1511083 -0.1327697 -0.479 0 0 0 124 124 118 255 
-0.1500283 -0.1327697 -0.479 0 0 0 125 125 119 255 
-0.1489484 -0.1327697 -0.479 0 0 0 125 125 119 255 
-0.1478685 -0.1327697 -0.479 0 0 0 125 125 119 255 
-0.1467886 -0.1327697 -0.479 0 0 0 125 125 119 255 
-0.1457087 -0.1327697 -0.479 0 0 0 125 125 119 255 
-0.1449307 -0.1330469 -0.48 0 0 0 125 125 119 255 
-0.1438486 -0.1330469 -0.48 0 0 0 126 126 120 255 
-0.1430638 -0.1333241 -0.481 0 0 0 126 126 120 255 
-0.1419794 -0.1333241 -0.481 0 0 0 126 126 120 255 
-0.140895 -0.1333241 -0.481 0 0 0 126 126 120 255 
-0.1398106 -0.1333241 -0.481 0 0 0 127 127 121 255 
-0.1387262 -0.1333241 -0.481 0 0 0 127 127 121 255 
-0.1373556 -0.1330469 -0.48 0 0 0 127 127 121 255 
-0.1362734 -0.1330469 -0.48 0 0 0 127 127 121 255 
-0.1351912 -0.1330469 -0.48 0 0 0 126 126 120 255 
-0.1343885 -0.1333241 -0.481 0 0 0 127 127 121 255 
-0.1333041 -0.1333241 -0.481 0 0 0 128 128 122 255 
-0.1322196 -0.1333241 -0.481 0 0 0 128 128 122 255 
-0.1311352 -0.1333241 -0.481 0 0 0 127 127 121 255 
-0.1300508 -0.1333241 -0.481 0 0 0 127 127 121 255 
-0.1289664 -0.1333241 -0.481 0 0 0 127 127 121 255 
-0.1276161 -0.1330469 -0.48 0 0 0 127 127 121 255 
-0.1265339 -0.1330469 -0.48 0 0 0 128 128 122 255 
-0.1251904 -0.1327697 -0.479 0 0 0 128 128 122 255 
-0.1241105 -0.1327697 -0.479 0 0 0 128 128 122 255 
-0.1227737 -0.1324925 -0.478 0 0 0 127 127 121 255 
-0.1216961 -0.1324925 -0.478 0 0 0 128 128 122 255 
-0.1206184 -0.1324925 -0.478 0 0 0 127 127 121 255 
-0.1195408 -0.1324925 -0.478 0 0 0 128 128 122 255 
-0.1184631 -0.1324925 -0.478 0 0 0 130 129 126 255 
-0.1173854 -0.1324925 -0.478 0 0 0 128 127 124 255 
-0.1163078 -0.1324925 -0.478 0 0 0 128 127 124 255 
-0.1152301 -0.1324925 -0.478 0 0 0 130 129 126 255 
-0.1139137 -0.1322153 -0.477 0 0 0 130 129 126 255 
-0.1128383 -0.1322153 -0.477 0 0 0 130 129 126 255 
-0.1117629 -0.1322153 -0.477 0 0 0 130 129 126 255 
-0.1106875 -0.1322153 -0.477 0 0 0 130 129 126 255 
-0.1098419 -0.1324925 -0.478 0 0 0 130 129 126 255 
-0.1087642 -0.1324925 -0.478 0 0 0 131 130 127 255 
-0.1079118 -0.1327697 -0.479 0 0 0 130 129 126 255 
-0.107055 -0.1330469 -0.48 0 0 0 130 129 126 255 
-0.1059728 -0.1330469 -0.48 0 0 0 130 129 126 255 
-0.1048906 -0.1330469 -0.48 0 0 0 128 127 124 255 
-0.1038085 -0.1330469 -0.48 0 0 0 130 129 126 255 
-0.1025123 -0.1327697 -0.479 0 0 0 128 129 126 255 
-0.1014324 -0.1327697 -0.479 0 0 0 128 129 126 255 
-0.100143 -0.1324925 -0.478 0 0 0 128 129 126 255 
-0.0990653 -0.1324925 -0.478 0 0 0 126 127 124 255 
-0.09798764 -0.1324925 -0.478 0 0 0 126 127 124 255 
-0.09670725 -0.1322153 -0.477 0 0 0 128 129 126 255 
-0.09583233 -0.1324925 -0.478 0 0 0 126 127 124 255 
-0.09475467 -0.1324925 -0.478 0 0 0 128 129 126 255 
-0.09367702 -0.1324925 -0.478 0 0 0 126 127 124 255 
-0.09259936 -0.1324925 -0.478 0 0 0 126 127 124 255 
-0.09171318 -0.1327697 -0.479 0 0 0 126 127 124 255 
-0.09063327 -0.1327697 -0.479 0 0 0 126 127 124 255 
-0.08974031 -0.1330469 -0.48 0 0 0 125 126 123 255 
-0.08865815 -0.1330469 -0.48 0 0 0 125 126 123 255 
-0.08775844 -0.1333241 -0.481 0 0 0 125 126 123 255 
-0.08667402 -0.1333241 -0.481 0 0 0 125 126 123 255 
-0.0855896 -0.1333241 -0.481 0 0 0 125 126 123 255 
-0.08450518 -0.1333241 -0.481 0 0 0 125 126 123 255 
-0.08342077 -0.1333241 -0.481 0 0 0 125 126 123 255 
-0.08216517 -0.1330469 -0.48 0 0 0 124 125 122 255 
-0.08108299 -0.1330469 -0.48 0 0 0 125 126 123 255 
-0.06382513 -0.1172476 -0.423 0 0 0 79 102 104 255 
-0.06272284 -0.1169704 -0.422 0 0 0 67 97 100 255 
-0.06177144 -0.1169704 -0.422 0 0 0 60 94 97 255 
-0.06067592 -0.1166932 -0.421 0 0 0 53 89 93 255 
-0.05972676 -0.1166932 -0.421 0 0 0 49 87 91 255 
-0.058638 -0.116416 -0.42 0 0 0 47 88 91 255 
-0.05755375 -0.1161388 -0.419 0 0 0 46 88 89 255 
-0.056474 -0.1158616 -0.418 0 0 0 45 87 88 255 
-0.05539877 -0.1155845 -0.417 0 0 0 45 89 90 255 
-0.05432804 -0.1153073 -0.416 0 0 0 45 88 91 255 
-0.05326182 -0.1150301 -0.415 0 0 0 45 88 91 255 
-0.05220011 -0.1147529 -0.414 0 0 0 45 88 91 255 
-0.05126674 -0.1147529 -0.414 0 0 0 44 87 90 255 
-0.0502118 -0.1144757 -0.413 0 0 0 44 87 90 255 
-0.04928069 -0.1144757 -0.413 0 0 0 44 87 90 255 
-0.04834957 -0.1144757 -0.413 0 0 0 42 85 88 255 
-0.04730365 -0.1141986 -0.412 0 0 0 39 84 87 255 
-0.04637479 -0.1141986 -0.412 0 0 0 36 81 84 255 
-0.04544593 -0.1141986 -0.412 0 0 0 36 81 86 255 
-0.04451707 -0.1141986 -0.412 0 0 0 36 81 86 255 
-0.04358822 -0.1141986 -0.412 0 0 0 35 80 85 255 
-0.04265936 -0.1141986 -0.412 0 0 0 36 81 86 255 
-0.0417305 -0.1141986 -0.412 0 0 0 43 86 91 255 
-0.04080164 -0.1141986 -0.412 0 0 0 47 90 95 255 
-0.039776 -0.1139214 -0.411 0 0 0 49 92 97 255 
-0.0388494 -0.1139214 -0.411 0 0 0 53 89 95 255 
-0.0379228 -0.1139214 -0.411 0 0 0 67 98 105 255 
-0.03699619 -0.1139214 -0.411 0 0 0 82 107 111 255 
-0.03606959 -0.1139214 -0.411 0 0 0 73 99 100 255 
-0.03514298 -0.1139214 -0.411 0 0 0 79 102 104 255 
-0.03413313 -0.1136442 -0.41 0 0 0 77 101 107 255 
-0.03328978 -0.1139214 -0.411 0 0 0 77 100 111 255 
-0.03236317 -0.1139214 -0.411 0 0 0 77 100 111 255 
-0.03143657 -0.1139214 -0.411 0 0 0 79 104 115 255 
-0.0305842 -0.1141986 -0.412 0 0 0 76 100 113 255 
-0.02965534 -0.1141986 -0.412 0 0 0 75 99 112 255 
-0.02872648 -0.1141986 -0.412 0 0 0 71 94 105 255 
-0.02779763 -0.1141986 -0.412 0 0 0 70 93 104 255 
-0.02686877 -0.1141986 -0.412 0 0 0 70 93 104 255 
-0.02593991 -0.1141986 -0.412 0 0 0 73 96 107 255 
-0.02507176 -0.1144757 -0.413 0 0 0 71 94 105 255 
-0.02414065 -0.1144757 -0.413 0 0 0 78 101 112 255 
-0.02320953 -0.1144757 -0.413 0 0 0 53 85 95 255 
-0.02233236 -0.1147529 -0.414 0 0 0 51 88 97 255 
-0.021399 -0.1147529 -0.414 0 0 0 50 89 99 255 
-0.02051506 -0.1150301 -0.415 0 0 0 50 89 99 255 
-0.01962662 -0.1153073 -0.416 0 0 0 50 89 99 255 
-0.01873367 -0.1155845 -0.417 0 0 0 51 90 100 255 
-0.01783621 -0.1158616 -0.418 0 0 0 52 91 101 255 
-0.01689382 -0.1158616 -0.418 0 0 0 52 91 101 255 
-0.0159896 -0.1161388 -0.419 0 0 0 51 90 100 255 
-0.01504496 -0.1161388 -0.419 0 0 0 50 91 101 255 
-0.01413397 -0.116416 -0.42 0 0 0 51 92 102 255 
-0.01318708 -0.116416 -0.42 0 0 0 54 93 103 255 
-0.01226933 -0.1166932 -0.421 0 0 0 56 95 105 255 
-0.01134707 -0.1169704 -0.422 0 0 0 57 96 106 255 
-0.01044493 -0.1175247 -0.424 0 0 0 59 98 108 255 
-0.009511401 -0.1178019 -0.425 0 0 0 65 100 109 255 
-0.00857336 -0.1180791 -0.426 0 0 0 71 103 113 255 
-0.007630809 -0.1183563 -0.427 0 0 0 80 109 116 255 
-0.006668134 -0.1183563 -0.427 0 0 0 87 111 117 255 
-0.005342572 -0.1333241 -0.481 0 0 0 93 113 118 255 
-0.004258153 -0.1333241 -0.481 0 0 0 106 122 125 255 
-0.003173733 -0.1333241 -0.481 0 0 0 120 130 132 255 
-0.002089314 -0.1333241 -0.481 0 0 0 124 132 134 255 
-0.001006984 -0.1336012 -0.482 0 0 0 127 133 133 255 
7.968985e-05 -0.1336012 -0.482 0 0 0 128 134 134 255 
0.001166364 -0.1336012 -0.482 0 0 0 132 136 136 255 
0.002253037 -0.1336012 -0.482 0 0 0 133 137 137 255 
0.003339711 -0.1336012 -0.482 0 0 0 132 136 136 255 
0.004426385 -0.1336012 -0.482 0 0 0 132 136 136 255 
0.005513059 -0.1336012 -0.482 0 0 0 134 138 137 255 
0.006599733 -0.1336012 -0.482 0 0 0 134 138 137 255 
0.007686406 -0.1336012 -0.482 0 0 0 135 139 138 255 
0.00877308 -0.1336012 -0.482 0 0 0 135 139 138 255 
0.009839299 -0.1333241 -0.481 0 0 0 136 140 139 255 
0.01092372 -0.1333241 -0.481 0 0 0 136 140 139 255 
0.01200814 -0.1333241 -0.481 0 0 0 135 139 138 255 
0.01309256 -0.1333241 -0.481 0 0 0 135 139 138 255 
0.01417698 -0.1333241 -0.481 0 0 0 135 139 138 255 
0.01526139 -0.1333241 -0.481 0 0 0 135 139 138 255 
0.01634582 -0.1333241 -0.481 0 0 0 135 139 138 255 
0.01743023 -0.1333241 -0.481 0 0 0 136 140 139 255 
0.01851465 -0.1333241 -0.481 0 0 0 136 140 139 255 
0.01959907 -0.1333241 -0.481 0 0 0 137 141 140 255 
0.02068349 -0.1333241 -0.481 0 0 0 137 141 140 255 
0.02176791 -0.1333241 -0.481 0 0 0 137 141 140 255 
0.02285233 -0.1333241 -0.481 0 0 0 137 141 140 255 
0.02393675 -0.1333241 -0.481 0 0 0 137 141 140 255 
0.02502117 -0.1333241 -0.481 0 0 0 137 141 140 255 
0.02610559 -0.1333241 -0.481 0 0 0 140 140 140 255 
0.02719001 -0.1333241 -0.481 0 0 0 140 140 140 255 
0.02827443 -0.1333241 -0.481 0 0 0 140 140 140 255 
0.02935885 -0.1333241 -0.481 0 0 0 142 142 142 255 
0.03044327 -0.1333241 -0.481 0 0 0 142 142 142 255 
0.03152768 -0.1333241 -0.481 0 0 0 142 142 142 255 
0.0326121 -0.1333241 -0.481 0 0 0 142 142 142 255 
0.03369652 -0.1333241 -0.481 0 0 0 143 143 143 255 
0.03478095 -0.1333241 -0.481 0 0 0 143 143 143 255 
0.03586536 -0.1333241 -0.481 0 0 0 143 143 143 255 
0.03694978 -0.1333241 -0.481 0 0 0 144 144 144 255 
0.0380342 -0.1333241 -0.481 0 0 0 144 144 144 255 
0.03919994 -0.1336012 -0.482 0 0 0 144 144 144 255 
0.04028662 -0.1336012 -0.482 0 0 0 143 143 143 255 
0.04137329 -0.1336012 -0.482 0 0 0 144 144 144 255 
0.04245997 -0.1336012 -0.482 0 0 0 143 143 143 255 
0.04354664 -0.1336012 -0.482 0 0 0 143 143 143 255 
0.04463331 -0.1336012 -0.482 0 0 0 144 144 144 255 
0.04571999 -0.1336012 -0.482 0 0 0 144 144 144 255 
0.04680666 -0.1336012 -0.482 0 0 0 144 144 144 255 
0.04789334 -0.1336012 -0.482 0 0 0 144 144 144 255 
0.04898001 -0.1336012 -0.482 0 0 0 144 144 144 255 
0.05006668 -0.1336012 -0.482 0 0 0 144 144 144 255 
0.05115336 -0.1336012 -0.482 0 0 0 145 145 145 255 
0.05224003 -0.1336012 -0.482 0 0 0 144 144 144 255 
0.05332671 -0.1336012 -0.482 0 0 0 143 143 143 255 
0.05441338 -0.1336012 -0.482 0 0 0 143 143 143 255 
0.0556152 -0.1338784 -0.483 0 0 0 145 145 145 255 
0.05670413 -0.1338784 -0.483 0 0 0 145 145 145 255 
0.05779305 -0.1338784 -0.483 0 0 0 145 145 145 255 
0.05888198 -0.1338784 -0.483 0 0 0 145 145 145 255 
0.05997091 -0.1338784 -0.483 0 0 0 145 145 145 255 
0.06105984 -0.1338784 -0.483 0 0 0 146 146 146 255 
0.06214876 -0.1338784 -0.483 0 0 0 145 145 145 255 
0.0632377 -0.1338784 -0.483 0 0 0 145 145 145 255 
0.06432662 -0.1338784 -0.483 0 0 0 147 147 147 255 
0.06541555 -0.1338784 -0.483 0 0 0 147 147 147 255 
0.06664218 -0.1341556 -0.484 0 0 0 146 146 147 255 
0.06773335 -0.1341556 -0.484 0 0 0 146 146 147 255 
0.06882454 -0.1341556 -0.484 0 0 0 146 146 147 255 
0.06991572 -0.1341556 -0.484 0 0 0 147 147 148 255 
0.07086019 -0.1338784 -0.483 0 0 0 147 147 148 255 
0.07194912 -0.1338784 -0.483 0 0 0 147 147 148 255 
0.07303805 -0.1338784 -0.483 0 0 0 149 149 150 255 
0.07397351 -0.1336012 -0.482 0 0 0 149 149 150 255 
0.07506018 -0.1336012 -0.482 0 0 0 149 149 150 255 
0.07614686 -0.1336012 -0.482 0 0 0 149 149 150 255 
0.07723353 -0.1336012 -0.482 0 0 0 149 149 150 255 
0.07832021 -0.1336012 -0.482 0 0 0 149 149 150 255 
0.07940688 -0.1336012 -0.482 0 0 0 149 149 150 255 
0.08049355 -0.1336012 -0.482 0 0 0 149 149 150 255 
0.08158023 -0.1336012 -0.482 0 0 0 147 147 148 255 
0.0826669 -0.1336012 -0.482 0 0 0 149 149 150 255 
0.08392733 -0.1338784 -0.483 0 0 0 149 149 150 255 
0.08501627 -0.1338784 -0.483 0 0 0 149 149 150 255 
0.08610519 -0.1338784 -0.483 0 0 0 147 147 148 255 
0.08719412 -0.1338784 -0.483 0 0 0 146 146 147 255 
0.08828304 -0.1338784 -0.483 0 0 0 147 147 148 255 
0.08937197 -0.1338784 -0.483 0 0 0 147 147 148 255 
0.0906482 -0.1341556 -0.484 0 0 0 147 147 148 255 
0.09173938 -0.1341556 -0.484 0 0 0 147 147 148 255 
0.09302236 -0.1344328 -0.485 0 0 0 149 149 150 255 
0.0945039 -0.1349871 -0.487 0 0 0 149 149 150 255 
0.09579816 -0.1352643 -0.488 0 0 0 149 149 150 255 
0.09729549 -0.1358187 -0.49 0 0 0 149 149 150 255 
0.09860101 -0.1360959 -0.491 0 0 0 150 150 151 255 
0.09970798 -0.1360959 -0.491 0 0 0 151 151 152 255 
0.1008149 -0.1360959 -0.491 0 0 0 151 151 152 255 
0.1021295 -0.136373 -0.492 0 0 0 151 150 154 255 
0.1032387 -0.136373 -0.492 0 0 0 151 150 154 255 
0.1043479 -0.136373 -0.492 0 0 0 151 150 154 255 
0.1054571 -0.136373 -0.492 0 0 0 152 151 155 255 
0.1065664 -0.136373 -0.492 0 0 0 153 152 156 255 
0.1076756 -0.136373 -0.492 0 0 0 152 151 155 255 
0.1087848 -0.136373 -0.492 0 0 0 153 152 156 255 
0.109894 -0.136373 -0.492 0 0 0 153 152 156 255 
0.1110032 -0.136373 -0.492 0 0 0 152 151 155 255 
0.1121124 -0.136373 -0.492 0 0 0 153 152 156 255 
0.1129915 -0.1360959 -0.491 0 0 0 155 154 158 255 
0.1140985 -0.1360959 -0.491 0 0 0 155 154 158 255 
0.1152055 -0.1360959 -0.491 0 0 0 154 153 157 255 
0.1163124 -0.1360959 -0.491 0 0 0 154 153 157 255 
0.1171803 -0.1358187 -0.49 0 0 0 153 152 156 255 
0.122595 -0.1083778 -0.391 0 0 0 141 146 149 255 
0.1231607 -0.1081006 -0.39 0 0 0 140 145 148 255 
0.12404 -0.1081006 -0.39 0 0 0 141 146 149 255 
0.1249192 -0.1081006 -0.39 0 0 0 141 146 149 255 
0.1257985 -0.1081006 -0.39 0 0 0 141 146 149 255 
0.1266778 -0.1081006 -0.39 0 0 0 143 146 149 255 
0.127557 -0.1081006 -0.39 0 0 0 142 145 148 255 
0.1284363 -0.1081006 -0.39 0 0 0 142 145 148 255 
0.1293155 -0.1081006 -0.39 0 0 0 143 146 149 255 
0.1305286 -0.1083778 -0.391 0 0 0 142 145 148 255 
0.1314101 -0.1083778 -0.391 0 0 0 142 145 148 255 
0.1322917 -0.1083778 -0.391 0 0 0 143 146 149 255 
0.1331732 -0.1083778 -0.391 0 0 0 143 146 149 255 
0.1340547 -0.1083778 -0.391 0 0 0 142 145 148 255 
0.1352813 -0.1086549 -0.392 0 0 0 142 145 148 255 
0.1358177 -0.1083778 -0.391 0 0 0 142 145 148 255 
0.1444866 -0.1089321 -0.393 0 0 0 135 139 139 255 
0.1453726 -0.1089321 -0.393 0 0 0 133 137 137 255 
0.1462587 -0.1089321 -0.393 0 0 0 128 132 132 255 
-0.2151652 -0.1307758 -0.468 0 0 0 125 126 118 255 
-0.2145676 -0.1310553 -0.469 0 0 0 124 125 117 255 
-0.2135102 -0.1310553 -0.469 0 0 0 124 125 117 255 
-0.213926 -0.1332907 -0.477 0 0 0 126 127 119 255 
-0.213743 -0.1338496 -0.479 0 0 0 126 127 119 255 
-0.2131071 -0.134129 -0.48 0 0 0 125 126 118 255 
-0.2124667 -0.1344085 -0.481 0 0 0 126 127 119 255 
-0.2118217 -0.1346879 -0.482 0 0 0 126 127 119 255 
-0.210735 -0.1346879 -0.482 0 0 0 125 126 118 255 
-0.2096484 -0.1346879 -0.482 0 0 0 124 125 117 255 
-0.2085617 -0.1346879 -0.482 0 0 0 125 124 116 255 
-0.207475 -0.1346879 -0.482 0 0 0 126 125 117 255 
-0.2063883 -0.1346879 -0.482 0 0 0 126 125 117 255 
-0.2048757 -0.1344085 -0.481 0 0 0 127 126 118 255 
-0.2037913 -0.1344085 -0.481 0 0 0 125 126 118 255 
-0.2027069 -0.1344085 -0.481 0 0 0 125 125 119 255 
-0.2016225 -0.1344085 -0.481 0 0 0 124 124 118 255 
-0.2005381 -0.1344085 -0.481 0 0 0 124 124 118 255 
-0.1994536 -0.1344085 -0.481 0 0 0 124 124 118 255 
-0.1983692 -0.1344085 -0.481 0 0 0 124 124 118 255 
-0.1972848 -0.1344085 -0.481 0 0 0 125 125 119 255 
-0.1962004 -0.1344085 -0.481 0 0 0 125 125 119 255 
-0.1947103 -0.134129 -0.48 0 0 0 124 124 118 255 
-0.1932247 -0.1338496 -0.479 0 0 0 124 124 118 255 
-0.1921448 -0.1338496 -0.479 0 0 0 123 123 117 255 
-0.190666 -0.1335702 -0.478 0 0 0 121 121 115 255 
-0.1895884 -0.1335702 -0.478 0 0 0 121 121 115 255 
-0.1885107 -0.1335702 -0.478 0 0 0 123 123 117 255 
-0.187041 -0.1332907 -0.477 0 0 0 123 123 117 255 
-0.1859656 -0.1332907 -0.477 0 0 0 121 121 115 255 
-0.1852778 -0.1335702 -0.478 0 0 0 121 121 115 255 
-0.1842001 -0.1335702 -0.478 0 0 0 120 120 114 255 
-0.1831224 -0.1335702 -0.478 0 0 0 118 120 114 255 
-0.1820448 -0.1335702 -0.478 0 0 0 119 121 115 255 
-0.1809671 -0.1335702 -0.478 0 0 0 118 120 114 255 
-0.1798895 -0.1335702 -0.478 0 0 0 117 119 113 255 
-0.1791859 -0.1338496 -0.479 0 0 0 118 120 114 255 
-0.1784778 -0.134129 -0.48 0 0 0 118 120 114 255 
-0.1773957 -0.134129 -0.48 0 0 0 118 120 114 255 
-0.1766808 -0.1344085 -0.481 0 0 0 118 120 114 255 
-0.1755964 -0.1344085 -0.481 0 0 0 117 119 113 255 
-0.1748748 -0.1346879 -0.482 0 0 0 118 120 114 255 
-0.1737881 -0.1346879 -0.482 0 0 0 118 120 114 255 
-0.1727014 -0.1346879 -0.482 0 0 0 120 120 114 255 
-0.1712587 -0.1344085 -0.481 0 0 0 121 121 115 255 
-0.1701743 -0.1344085 -0.481 0 0 0 121 121 115 255 
-0.1687384 -0.134129 -0.48 0 0 0 121 121 115 255 
-0.1676562 -0.134129 -0.48 0 0 0 121 121 115 255 
-0.166574 -0.134129 -0.48 0 0 0 121 121 115 255 
-0.1654918 -0.134129 -0.48 0 0 0 121 121 115 255 
-0.1644097 -0.134129 -0.48 0 0 0 123 123 117 255 
-0.1633275 -0.134129 -0.48 0 0 0 123 123 117 255 
-0.1622454 -0.134129 -0.48 0 0 0 123 123 117 255 
-0.1611632 -0.134129 -0.48 0 0 0 123 123 117 255 
-0.160081 -0.134129 -0.48 0 0 0 124 124 118 255 
-0.1589989 -0.134129 -0.48 0 0 0 124 124 118 255 
-0.1575877 -0.1338496 -0.479 0 0 0 123 123 117 255 
-0.1565078 -0.1338496 -0.479 0 0 0 124 124 118 255 
-0.1551034 -0.1335702 -0.478 0 0 0 124 124 118 255 
-0.1540257 -0.1335702 -0.478 0 0 0 124 124 118 255 
-0.1529481 -0.1335702 -0.478 0 0 0 124 124 118 255 
-0.1521882 -0.1338496 -0.479 0 0 0 124 124 118 255 
-0.1511083 -0.1338496 -0.479 0 0 0 124 124 118 255 
-0.1497151 -0.1335702 -0.478 0 0 0 124 124 118 255 
-0.1489484 -0.1338496 -0.479 0 0 0 124 124 118 255 
-0.1475598 -0.1335702 -0.478 0 0 0 125 125 119 255 
-0.1464822 -0.1335702 -0.478 0 0 0 125 125 119 255 
-0.1454045 -0.1335702 -0.478 0 0 0 125 125 119 255 
-0.1446288 -0.1338496 -0.479 0 0 0 126 126 120 255 
-0.1435489 -0.1338496 -0.479 0 0 0 125 125 119 255 
-0.1427664 -0.134129 -0.48 0 0 0 126 126 120 255 
-0.1416842 -0.134129 -0.48 0 0 0 126 126 120 255 
-0.1406021 -0.134129 -0.48 0 0 0 126 125 122 255 
-0.1395199 -0.134129 -0.48 0 0 0 126 125 122 255 
-0.1384377 -0.134129 -0.48 0 0 0 127 126 123 255 
-0.1373556 -0.134129 -0.48 0 0 0 127 126 123 255 
-0.1362734 -0.134129 -0.48 0 0 0 127 126 123 255 
-0.1351912 -0.134129 -0.48 0 0 0 126 125 122 255 
-0.1343885 -0.1344085 -0.481 0 0 0 126 125 122 255 
-0.1333041 -0.1344085 -0.481 0 0 0 128 127 124 255 
-0.1322196 -0.1344085 -0.481 0 0 0 127 126 123 255 
-0.1311352 -0.1344085 -0.481 0 0 0 127 126 123 255 
-0.1300508 -0.1344085 -0.481 0 0 0 127 126 123 255 
-0.1286982 -0.134129 -0.48 0 0 0 127 127 121 255 
-0.1276161 -0.134129 -0.48 0 0 0 127 127 121 255 
-0.1262703 -0.1338496 -0.479 0 0 0 128 128 122 255 
-0.1251904 -0.1338496 -0.479 0 0 0 127 127 121 255 
-0.1238514 -0.1335702 -0.478 0 0 0 128 128 122 255 
-0.1227737 -0.1335702 -0.478 0 0 0 128 128 122 255 
-0.1216961 -0.1335702 -0.478 0 0 0 128 128 122 255 
-0.1206184 -0.1335702 -0.478 0 0 0 128 128 122 255 
-0.1195408 -0.1335702 -0.478 0 0 0 128 128 122 255 
-0.1184631 -0.1335702 -0.478 0 0 0 130 129 126 255 
-0.1173854 -0.1335702 -0.478 0 0 0 130 129 126 255 
-0.1163078 -0.1335702 -0.478 0 0 0 130 129 126 255 
-0.1152301 -0.1335702 -0.478 0 0 0 130 129 126 255 
-0.1139137 -0.1332907 -0.477 0 0 0 130 129 126 255 
-0.1128383 -0.1332907 -0.477 0 0 0 130 129 126 255 
-0.1117629 -0.1332907 -0.477 0 0 0 130 129 126 255 
-0.1106875 -0.1332907 -0.477 0 0 0 130 129 126 255 
-0.1096121 -0.1332907 -0.477 0 0 0 131 130 127 255 
-0.1087642 -0.1335702 -0.478 0 0 0 131 130 127 255 
-0.1079118 -0.1338496 -0.479 0 0 0 130 129 126 255 
-0.1068319 -0.1338496 -0.479 0 0 0 130 129 126 255 
-0.1059728 -0.134129 -0.48 0 0 0 130 129 126 255 
-0.1048906 -0.134129 -0.48 0 0 0 131 130 127 255 
-0.1035922 -0.1338496 -0.479 0 0 0 130 129 126 255 
-0.1025123 -0.1338496 -0.479 0 0 0 131 130 127 255 
-0.1012206 -0.1335702 -0.478 0 0 0 128 129 126 255 
-0.100143 -0.1335702 -0.478 0 0 0 128 129 126 255 
-0.0990653 -0.1335702 -0.478 0 0 0 126 127 124 255 
-0.09798764 -0.1335702 -0.478 0 0 0 126 127 124 255 
-0.09670725 -0.1332907 -0.477 0 0 0 126 127 124 255 
-0.09563185 -0.1332907 -0.477 0 0 0 128 129 126 255 
-0.09475467 -0.1335702 -0.478 0 0 0 126 127 124 255 
-0.09367702 -0.1335702 -0.478 0 0 0 126 127 124 255 
-0.09259936 -0.1335702 -0.478 0 0 0 126 127 124 255 
-0.09171318 -0.1338496 -0.479 0 0 0 126 127 124 255 
-0.09063327 -0.1338496 -0.479 0 0 0 126 127 124 255 
-0.08955336 -0.1338496 -0.479 0 0 0 126 127 124 255 
-0.08865815 -0.134129 -0.48 0 0 0 126 127 124 255 
-0.08757599 -0.134129 -0.48 0 0 0 125 126 123 255 
-0.08649382 -0.134129 -0.48 0 0 0 125 126 123 255 
-0.08541166 -0.134129 -0.48 0 0 0 125 126 123 255 
-0.08432949 -0.134129 -0.48 0 0 0 125 126 123 255 
-0.0830739 -0.1338496 -0.479 0 0 0 125 126 123 255 
-0.08182281 -0.1335702 -0.478 0 0 0 125 126 123 255 
-0.08057623 -0.1332907 -0.477 0 0 0 125 126 123 255 
-0.07950083 -0.1332907 -0.477 0 0 0 122 127 123 255 
-0.06382513 -0.1182012 -0.423 0 0 0 75 101 102 255 
-0.06272284 -0.1179218 -0.422 0 0 0 66 98 101 255 
-0.06177144 -0.1179218 -0.422 0 0 0 59 93 96 255 
-0.06067592 -0.1176424 -0.421 0 0 0 54 90 94 255 
-0.05972676 -0.1176424 -0.421 0 0 0 49 87 91 255 
-0.058638 -0.1173629 -0.42 0 0 0 46 87 90 255 
-0.05755375 -0.1170835 -0.419 0 0 0 45 86 89 255 
-0.056474 -0.116804 -0.418 0 0 0 43 86 89 255 
-0.05539877 -0.1165246 -0.417 0 0 0 43 86 89 255 
-0.05432804 -0.1162452 -0.416 0 0 0 44 87 90 255 
-0.05326182 -0.1159657 -0.415 0 0 0 44 87 90 255 
-0.05220011 -0.1156863 -0.414 0 0 0 44 87 90 255 
-0.05114291 -0.1154069 -0.413 0 0 0 44 87 90 255 
-0.0502118 -0.1154069 -0.413 0 0 0 43 86 89 255 
-0.04928069 -0.1154069 -0.413 0 0 0 43 86 89 255 
-0.04823251 -0.1151274 -0.412 0 0 0 43 86 89 255 
-0.04730365 -0.1151274 -0.412 0 0 0 44 87 92 255 
-0.04637479 -0.1151274 -0.412 0 0 0 44 87 92 255 
-0.04533562 -0.114848 -0.411 0 0 0 43 86 91 255 
-0.04440902 -0.114848 -0.411 0 0 0 43 86 91 255 
-0.04348242 -0.114848 -0.411 0 0 0 43 86 91 255 
-0.04255581 -0.114848 -0.411 0 0 0 44 87 92 255 
-0.04162921 -0.114848 -0.411 0 0 0 45 88 93 255 
-0.04070261 -0.114848 -0.411 0 0 0 45 88 93 255 
-0.039776 -0.114848 -0.411 0 0 0 47 90 95 255 
-0.0388494 -0.114848 -0.411 0 0 0 51 92 97 255 
-0.0379228 -0.114848 -0.411 0 0 0 57 92 101 255 
-0.03699619 -0.114848 -0.411 0 0 0 67 96 103 255 
-0.03598183 -0.1145686 -0.41 0 0 0 75 101 107 255 
-0.03505748 -0.1145686 -0.41 0 0 0 80 105 109 255 
-0.03413313 -0.1145686 -0.41 0 0 0 74 98 106 255 
-0.03320878 -0.1145686 -0.41 0 0 0 73 95 108 255 
-0.03228443 -0.1145686 -0.41 0 0 0 70 94 107 255 
-0.03143657 -0.114848 -0.411 0 0 0 75 99 112 255 
-0.03050997 -0.114848 -0.411 0 0 0 70 94 107 255 
-0.02958336 -0.114848 -0.411 0 0 0 70 94 107 255 
-0.02872648 -0.1151274 -0.412 0 0 0 68 92 105 255 
-0.02779763 -0.1151274 -0.412 0 0 0 69 93 106 255 
-0.02686877 -0.1151274 -0.412 0 0 0 66 90 103 255 
-0.02593991 -0.1151274 -0.412 0 0 0 69 93 106 255 
-0.02501105 -0.1151274 -0.412 0 0 0 70 95 106 255 
-0.02414065 -0.1154069 -0.413 0 0 0 74 102 112 255 
-0.02320953 -0.1154069 -0.413 0 0 0 56 88 98 255 
-0.02227842 -0.1154069 -0.413 0 0 0 52 88 99 255 
-0.021399 -0.1156863 -0.414 0 0 0 50 89 99 255 
-0.02051506 -0.1159657 -0.415 0 0 0 49 88 98 255 
-0.01962662 -0.1162452 -0.416 0 0 0 50 89 99 255 
-0.01877859 -0.116804 -0.418 0 0 0 51 90 100 255 
-0.01787888 -0.1170835 -0.419 0 0 0 51 90 100 255 
-0.01693424 -0.1170835 -0.419 0 0 0 52 91 101 255 
-0.01602776 -0.1173629 -0.42 0 0 0 52 91 101 255 
-0.01508087 -0.1173629 -0.42 0 0 0 52 91 101 255 
-0.01416763 -0.1176424 -0.421 0 0 0 51 92 102 255 
-0.01321848 -0.1176424 -0.421 0 0 0 52 93 103 255 
-0.01229847 -0.1179218 -0.422 0 0 0 54 95 105 255 
-0.01137396 -0.1182012 -0.423 0 0 0 57 96 106 255 
-0.01046957 -0.1187601 -0.425 0 0 0 60 96 107 255 
-0.009533782 -0.1190395 -0.426 0 0 0 65 99 110 255 
-0.008593485 -0.119319 -0.427 0 0 0 70 102 112 255 
-0.00764868 -0.1195984 -0.428 0 0 0 74 105 112 255 
-0.00668375 -0.1195984 -0.428 0 0 0 82 108 114 255 
-0.005342572 -0.1344085 -0.481 0 0 0 88 110 115 255 
-0.004258153 -0.1344085 -0.481 0 0 0 95 115 120 255 
-0.003173733 -0.1344085 -0.481 0 0 0 110 121 125 255 
-0.002089314 -0.1344085 -0.481 0 0 0 120 130 132 255 
-0.001004895 -0.1344085 -0.481 0 0 0 126 132 132 255 
7.952453e-05 -0.1344085 -0.481 0 0 0 128 134 134 255 
0.001163944 -0.1344085 -0.481 0 0 0 130 134 134 255 
0.002248363 -0.1344085 -0.481 0 0 0 132 136 136 255 
0.003332783 -0.1344085 -0.481 0 0 0 132 136 136 255 
0.004417202 -0.1344085 -0.481 0 0 0 133 137 137 255 
0.005501621 -0.1344085 -0.481 0 0 0 135 139 138 255 
0.006586041 -0.1344085 -0.481 0 0 0 135 139 138 255 
0.00767046 -0.1344085 -0.481 0 0 0 134 138 137 255 
0.008754879 -0.1344085 -0.481 0 0 0 135 139 138 255 
0.009839299 -0.1344085 -0.481 0 0 0 135 139 138 255 
0.01092372 -0.1344085 -0.481 0 0 0 135 139 138 255 
0.01200814 -0.1344085 -0.481 0 0 0 136 140 139 255 
0.01309256 -0.1344085 -0.481 0 0 0 136 140 139 255 
0.0141475 -0.134129 -0.48 0 0 0 135 139 138 255 
0.01522967 -0.134129 -0.48 0 0 0 139 139 139 255 
0.01631183 -0.134129 -0.48 0 0 0 139 139 139 255 
0.017394 -0.134129 -0.48 0 0 0 139 139 139 255 
0.01851465 -0.1344085 -0.481 0 0 0 139 139 139 255 
0.01959907 -0.1344085 -0.481 0 0 0 139 139 139 255 
0.02068349 -0.1344085 -0.481 0 0 0 140 140 140 255 
0.02176791 -0.1344085 -0.481 0 0 0 142 142 142 255 
0.02285233 -0.1344085 -0.481 0 0 0 140 140 140 255 
0.02393675 -0.1344085 -0.481 0 0 0 139 139 139 255 
0.02502117 -0.1344085 -0.481 0 0 0 142 142 142 255 
0.02610559 -0.1344085 -0.481 0 0 0 142 142 142 255 
0.02719001 -0.1344085 -0.481 0 0 0 140 140 140 255 
0.02827443 -0.1344085 -0.481 0 0 0 140 140 140 255 
0.02935885 -0.1344085 -0.481 0 0 0 140 140 140 255 
0.03044327 -0.1344085 -0.481 0 0 0 140 140 140 255 
0.03152768 -0.1344085 -0.481 0 0 0 142 142 142 255 
0.0326121 -0.1344085 -0.481 0 0 0 142 142 142 255 
0.03369652 -0.1344085 -0.481 0 0 0 142 142 142 255 
0.03478095 -0.1344085 -0.481 0 0 0 142 142 142 255 
0.03586536 -0.1344085 -0.481 0 0 0 142 142 142 255 
0.03694978 -0.1344085 -0.481 0 0 0 143 143 143 255 
0.0380342 -0.1344085 -0.481 0 0 0 143 143 143 255 
0.03911862 -0.1344085 -0.481 0 0 0 144 144 144 255 
0.04020304 -0.1344085 -0.481 0 0 0 143 143 143 255 
0.04137329 -0.1346879 -0.482 0 0 0 144 144 144 255 
0.04245997 -0.1346879 -0.482 0 0 0 144 144 144 255 
0.04354664 -0.1346879 -0.482 0 0 0 143 143 143 255 
0.04463331 -0.1346879 -0.482 0 0 0 144 144 144 255 
0.04571999 -0.1346879 -0.482 0 0 0 144 144 144 255 
0.04680666 -0.1346879 -0.482 0 0 0 140 144 143 255 
0.04789334 -0.1346879 -0.482 0 0 0 140 144 143 255 
0.04898001 -0.1346879 -0.482 0 0 0 141 145 144 255 
0.05006668 -0.1346879 -0.482 0 0 0 141 145 144 255 
0.05104723 -0.1344085 -0.481 0 0 0 141 145 144 255 
0.05213165 -0.1344085 -0.481 0 0 0 141 145 144 255 
0.05332671 -0.1346879 -0.482 0 0 0 140 144 143 255 
0.05441338 -0.1346879 -0.482 0 0 0 141 145 144 255 
0.05550005 -0.1346879 -0.482 0 0 0 142 146 145 255 
0.05658673 -0.1346879 -0.482 0 0 0 142 146 145 255 
0.05779305 -0.1349673 -0.483 0 0 0 145 145 145 255 
0.05888198 -0.1349673 -0.483 0 0 0 145 145 145 255 
0.05997091 -0.1349673 -0.483 0 0 0 145 145 145 255 
0.06105984 -0.1349673 -0.483 0 0 0 146 146 146 255 
0.06214876 -0.1349673 -0.483 0 0 0 146 146 146 255 
0.0632377 -0.1349673 -0.483 0 0 0 146 146 146 255 
0.06432662 -0.1349673 -0.483 0 0 0 147 147 147 255 
0.06541555 -0.1349673 -0.483 0 0 0 147 147 148 255 
0.06650449 -0.1349673 -0.483 0 0 0 147 147 148 255 
0.06759341 -0.1349673 -0.483 0 0 0 147 147 148 255 
0.06868234 -0.1349673 -0.483 0 0 0 146 146 147 255 
0.06977126 -0.1349673 -0.483 0 0 0 147 147 148 255 
0.07086019 -0.1349673 -0.483 0 0 0 147 147 148 255 
0.07180016 -0.1346879 -0.482 0 0 0 147 147 148 255 
0.07288683 -0.1346879 -0.482 0 0 0 149 149 150 255 
0.07397351 -0.1346879 -0.482 0 0 0 149 149 150 255 
0.07506018 -0.1346879 -0.482 0 0 0 149 149 150 255 
0.07614686 -0.1346879 -0.482 0 0 0 149 149 150 255 
0.07723353 -0.1346879 -0.482 0 0 0 150 150 151 255 
0.07832021 -0.1346879 -0.482 0 0 0 149 149 150 255 
0.07940688 -0.1346879 -0.482 0 0 0 147 147 148 255 
0.08049355 -0.1346879 -0.482 0 0 0 149 149 150 255 
0.08158023 -0.1346879 -0.482 0 0 0 150 150 151 255 
0.0826669 -0.1346879 -0.482 0 0 0 149 149 150 255 
0.08375357 -0.1346879 -0.482 0 0 0 147 147 148 255 
0.08484025 -0.1346879 -0.482 0 0 0 147 147 148 255 
0.08592692 -0.1346879 -0.482 0 0 0 147 147 148 255 
0.08701359 -0.1346879 -0.482 0 0 0 147 147 148 255 
0.08810026 -0.1346879 -0.482 0 0 0 147 147 148 255 
0.08937197 -0.1349673 -0.483 0 0 0 146 146 147 255 
0.0906482 -0.1352468 -0.484 0 0 0 146 146 147 255 
0.09173938 -0.1352468 -0.484 0 0 0 146 146 147 255 
0.09321416 -0.1358057 -0.486 0 0 0 147 147 148 255 
0.0945039 -0.1360851 -0.487 0 0 0 149 149 150 255 
0.09579816 -0.1363645 -0.488 0 0 0 149 149 150 255 
0.09709692 -0.136644 -0.489 0 0 0 150 150 151 255 
0.09840019 -0.1369234 -0.49 0 0 0 151 151 152 255 
0.09970798 -0.1372028 -0.491 0 0 0 152 152 153 255 
0.1008149 -0.1372028 -0.491 0 0 0 152 152 153 255 
0.1019219 -0.1372028 -0.491 0 0 0 152 151 155 255 
0.1030289 -0.1372028 -0.491 0 0 0 151 150 154 255 
0.1041358 -0.1372028 -0.491 0 0 0 151 150 154 255 
0.1052428 -0.1372028 -0.491 0 0 0 152 151 155 255 
0.1063498 -0.1372028 -0.491 0 0 0 152 151 155 255 
0.1074567 -0.1372028 -0.491 0 0 0 152 151 155 255 
0.1085637 -0.1372028 -0.491 0 0 0 153 152 156 255 
0.1096707 -0.1372028 -0.491 0 0 0 152 151 155 255 
0.110552 -0.1369234 -0.49 0 0 0 153 152 156 255 
0.1116567 -0.1369234 -0.49 0 0 0 153 152 156 255 
0.1127614 -0.1369234 -0.49 0 0 0 154 153 157 255 
0.1138661 -0.1369234 -0.49 0 0 0 154 153 157 255 
0.1149708 -0.1369234 -0.49 0 0 0 154 153 157 255 
0.1160755 -0.1369234 -0.49 0 0 0 154 153 157 255 
0.1171803 -0.1369234 -0.49 0 0 0 152 151 155 255 
0.1222815 -0.1089798 -0.39 0 0 0 143 146 149 255 
0.1231607 -0.1089798 -0.39 0 0 0 143 146 149 255 
0.12404 -0.1089798 -0.39 0 0 0 143 146 149 255 
0.1249192 -0.1089798 -0.39 0 0 0 143 146 149 255 
0.1257985 -0.1089798 -0.39 0 0 0 143 146 149 255 
0.1266778 -0.1089798 -0.39 0 0 0 143 146 149 255 
0.127557 -0.1089798 -0.39 0 0 0 142 145 148 255 
0.1284363 -0.1089798 -0.39 0 0 0 143 146 149 255 
0.1293155 -0.1089798 -0.39 0 0 0 143 146 149 255 
0.1305286 -0.1092593 -0.391 0 0 0 143 146 149 255 
0.1314101 -0.1092593 -0.391 0 0 0 143 146 149 255 
0.1322917 -0.1092593 -0.391 0 0 0 143 146 149 255 
0.1331732 -0.1092593 -0.391 0 0 0 143 146 149 255 
0.1340547 -0.1092593 -0.391 0 0 0 142 145 148 255 
0.1349362 -0.1092593 -0.391 0 0 0 142 145 148 255 
0.1358177 -0.1092593 -0.391 0 0 0 142 145 148 255 
0.1444866 -0.1098181 -0.393 0 0 0 135 139 139 255 
0.1453726 -0.1098181 -0.393 0 0 0 133 137 137 255 
0.1462587 -0.1098181 -0.393 0 0 0 130 134 134 255 
-0.2152963 -0.1312675 -0.466 0 0 0 124 125 117 255 
-0.2142457 -0.1312675 -0.466 0 0 0 124 125 117 255 
-0.2136526 -0.1315492 -0.467 0 0 0 124 125 117 255 
-0.2128506 -0.1343661 -0.477 0 0 0 124 127 119 255 
-0.2122192 -0.1346478 -0.478 0 0 0 125 126 118 255 
-0.2115832 -0.1349295 -0.479 0 0 0 124 125 117 255 
-0.2109428 -0.1352112 -0.48 0 0 0 124 125 117 255 
-0.2102978 -0.1354929 -0.481 0 0 0 124 125 117 255 
-0.2096484 -0.1357746 -0.482 0 0 0 123 124 116 255 
-0.208129 -0.1354929 -0.481 0 0 0 123 124 116 255 
-0.2070446 -0.1354929 -0.481 0 0 0 126 125 117 255 
-0.2059602 -0.1354929 -0.481 0 0 0 126 125 117 255 
-0.2048757 -0.1354929 -0.481 0 0 0 127 126 118 255 
-0.2033676 -0.1352112 -0.48 0 0 0 125 125 119 255 
-0.2022855 -0.1352112 -0.48 0 0 0 125 125 119 255 
-0.2012033 -0.1352112 -0.48 0 0 0 124 124 118 255 
-0.2001211 -0.1352112 -0.48 0 0 0 124 124 118 255 
-0.199039 -0.1352112 -0.48 0 0 0 123 123 117 255 
-0.1979568 -0.1352112 -0.48 0 0 0 124 124 118 255 
-0.1968746 -0.1352112 -0.48 0 0 0 124 124 118 255 
-0.1957925 -0.1352112 -0.48 0 0 0 123 123 117 255 
-0.1943047 -0.1349295 -0.479 0 0 0 123 123 117 255 
-0.1932247 -0.1349295 -0.479 0 0 0 123 123 117 255 
-0.1917437 -0.1346478 -0.478 0 0 0 121 121 115 255 
-0.190666 -0.1346478 -0.478 0 0 0 121 121 115 255 
-0.1895884 -0.1346478 -0.478 0 0 0 121 121 115 255 
-0.1885107 -0.1346478 -0.478 0 0 0 123 123 117 255 
-0.1874331 -0.1346478 -0.478 0 0 0 121 121 115 255 
-0.1863554 -0.1346478 -0.478 0 0 0 123 123 117 255 
-0.1852778 -0.1346478 -0.478 0 0 0 121 121 115 255 
-0.1842001 -0.1346478 -0.478 0 0 0 120 120 114 255 
-0.1831224 -0.1346478 -0.478 0 0 0 120 120 114 255 
-0.1820448 -0.1346478 -0.478 0 0 0 119 121 115 255 
-0.1809671 -0.1346478 -0.478 0 0 0 117 119 113 255 
-0.1798895 -0.1346478 -0.478 0 0 0 117 119 113 255 
-0.1791859 -0.1349295 -0.479 0 0 0 118 120 114 255 
-0.178106 -0.1349295 -0.479 0 0 0 118 120 114 255 
-0.1773957 -0.1352112 -0.48 0 0 0 117 119 113 255 
-0.1766808 -0.1354929 -0.481 0 0 0 118 120 114 255 
-0.1755964 -0.1354929 -0.481 0 0 0 118 120 114 255 
-0.1748748 -0.1357746 -0.482 0 0 0 119 121 115 255 
-0.1737881 -0.1357746 -0.482 0 0 0 118 120 114 255 
-0.1727014 -0.1357746 -0.482 0 0 0 118 120 114 255 
-0.1712587 -0.1354929 -0.481 0 0 0 119 121 115 255 
-0.1701743 -0.1354929 -0.481 0 0 0 119 121 115 255 
-0.1687384 -0.1352112 -0.48 0 0 0 121 121 115 255 
-0.1673069 -0.1349295 -0.479 0 0 0 123 123 117 255 
-0.166227 -0.1349295 -0.479 0 0 0 123 123 117 255 
-0.1651471 -0.1349295 -0.479 0 0 0 123 123 117 255 
-0.1640672 -0.1349295 -0.479 0 0 0 123 123 117 255 
-0.1633275 -0.1352112 -0.48 0 0 0 123 123 117 255 
-0.1622454 -0.1352112 -0.48 0 0 0 123 123 117 255 
-0.1611632 -0.1352112 -0.48 0 0 0 121 121 115 255 
-0.160081 -0.1352112 -0.48 0 0 0 125 123 117 255 
-0.1589989 -0.1352112 -0.48 0 0 0 125 123 117 255 
-0.1575877 -0.1349295 -0.479 0 0 0 125 123 117 255 
-0.1561811 -0.1346478 -0.478 0 0 0 124 124 118 255 
-0.1551034 -0.1346478 -0.478 0 0 0 124 124 118 255 
-0.1540257 -0.1346478 -0.478 0 0 0 124 124 118 255 
-0.1529481 -0.1346478 -0.478 0 0 0 124 124 118 255 
-0.1518704 -0.1346478 -0.478 0 0 0 124 124 118 255 
-0.1507928 -0.1346478 -0.478 0 0 0 124 124 118 255 
-0.1497151 -0.1346478 -0.478 0 0 0 124 124 118 255 
-0.1486375 -0.1346478 -0.478 0 0 0 123 123 117 255 
-0.1475598 -0.1346478 -0.478 0 0 0 124 124 118 255 
-0.1464822 -0.1346478 -0.478 0 0 0 125 125 119 255 
-0.1454045 -0.1346478 -0.478 0 0 0 125 125 119 255 
-0.1443268 -0.1346478 -0.478 0 0 0 126 126 120 255 
-0.1432492 -0.1346478 -0.478 0 0 0 125 125 119 255 
-0.142469 -0.1349295 -0.479 0 0 0 127 127 121 255 
-0.1413891 -0.1349295 -0.479 0 0 0 127 127 121 255 
-0.1403091 -0.1349295 -0.479 0 0 0 126 126 120 255 
-0.1392292 -0.1349295 -0.479 0 0 0 126 126 120 255 
-0.1384377 -0.1352112 -0.48 0 0 0 127 127 121 255 
-0.1373556 -0.1352112 -0.48 0 0 0 127 127 121 255 
-0.1362734 -0.1352112 -0.48 0 0 0 127 127 121 255 
-0.1351912 -0.1352112 -0.48 0 0 0 126 126 120 255 
-0.1343885 -0.1354929 -0.481 0 0 0 126 126 120 255 
-0.1333041 -0.1354929 -0.481 0 0 0 127 127 121 255 
-0.1322196 -0.1354929 -0.481 0 0 0 127 127 121 255 
-0.1311352 -0.1354929 -0.481 0 0 0 128 128 122 255 
-0.1300508 -0.1354929 -0.481 0 0 0 127 127 121 255 
-0.1286982 -0.1352112 -0.48 0 0 0 127 127 121 255 
-0.1276161 -0.1352112 -0.48 0 0 0 127 127 121 255 
-0.1262703 -0.1349295 -0.479 0 0 0 128 128 122 255 
-0.124929 -0.1346478 -0.478 0 0 0 128 128 122 255 
-0.1238514 -0.1346478 -0.478 0 0 0 128 128 122 255 
-0.1227737 -0.1346478 -0.478 0 0 0 128 128 122 255 
-0.1216961 -0.1346478 -0.478 0 0 0 128 128 122 255 
-0.1206184 -0.1346478 -0.478 0 0 0 128 128 122 255 
-0.1195408 -0.1346478 -0.478 0 0 0 130 130 124 255 
-0.1184631 -0.1346478 -0.478 0 0 0 128 127 124 255 
-0.1173854 -0.1346478 -0.478 0 0 0 130 129 126 255 
-0.1160645 -0.1343661 -0.477 0 0 0 128 127 124 255 
-0.1149891 -0.1343661 -0.477 0 0 0 128 127 124 255 
-0.1139137 -0.1343661 -0.477 0 0 0 131 130 127 255 
-0.1128383 -0.1343661 -0.477 0 0 0 130 129 126 255 
-0.1117629 -0.1343661 -0.477 0 0 0 130 129 126 255 
-0.1106875 -0.1343661 -0.477 0 0 0 130 129 126 255 
-0.1096121 -0.1343661 -0.477 0 0 0 130 129 126 255 
-0.1087642 -0.1346478 -0.478 0 0 0 128 127 124 255 
-0.1076865 -0.1346478 -0.478 0 0 0 130 129 126 255 
-0.1068319 -0.1349295 -0.479 0 0 0 130 128 128 255 
-0.105752 -0.1349295 -0.479 0 0 0 130 128 128 255 
-0.1046721 -0.1349295 -0.479 0 0 0 131 130 127 255 
-0.1035922 -0.1349295 -0.479 0 0 0 130 129 126 255 
-0.1022983 -0.1346478 -0.478 0 0 0 128 127 124 255 
-0.1012206 -0.1346478 -0.478 0 0 0 128 127 124 255 
-0.100143 -0.1346478 -0.478 0 0 0 128 129 126 255 
-0.0990653 -0.1346478 -0.478 0 0 0 129 130 127 255 
-0.09798764 -0.1346478 -0.478 0 0 0 128 129 126 255 
-0.09690998 -0.1346478 -0.478 0 0 0 128 129 126 255 
-0.09583233 -0.1346478 -0.478 0 0 0 126 127 124 255 
-0.09475467 -0.1346478 -0.478 0 0 0 126 127 124 255 
-0.09367702 -0.1346478 -0.478 0 0 0 128 129 126 255 
-0.09259936 -0.1346478 -0.478 0 0 0 128 129 126 255 
-0.09152171 -0.1346478 -0.478 0 0 0 128 129 126 255 
-0.09063327 -0.1349295 -0.479 0 0 0 128 129 126 255 
-0.08955336 -0.1349295 -0.479 0 0 0 126 127 124 255 
-0.08847345 -0.1349295 -0.479 0 0 0 126 127 124 255 
-0.08739354 -0.1349295 -0.479 0 0 0 125 126 123 255 
-0.08631363 -0.1349295 -0.479 0 0 0 126 127 124 255 
-0.08523372 -0.1349295 -0.479 0 0 0 126 127 124 255 
-0.08397812 -0.1346478 -0.478 0 0 0 126 127 124 255 
-0.08290046 -0.1346478 -0.478 0 0 0 125 126 123 255 
-0.08148045 -0.1340844 -0.476 0 0 0 124 124 124 255 
-0.0804073 -0.1340844 -0.476 0 0 0 124 124 124 255 
-0.07916749 -0.1338028 -0.475 0 0 0 120 124 123 255 
-0.06272284 -0.1188732 -0.422 0 0 0 64 95 100 255 
-0.06177144 -0.1188732 -0.422 0 0 0 61 92 97 255 
-0.06067592 -0.1185915 -0.421 0 0 0 53 89 93 255 
-0.05972676 -0.1185915 -0.421 0 0 0 48 86 90 255 
-0.058638 -0.1183098 -0.42 0 0 0 45 86 89 255 
-0.05755375 -0.1180281 -0.419 0 0 0 44 85 88 255 
-0.056474 -0.1177464 -0.418 0 0 0 43 84 87 255 
-0.05539877 -0.1174647 -0.417 0 0 0 41 84 87 255 
-0.05432804 -0.117183 -0.416 0 0 0 41 84 87 255 
-0.05326182 -0.1169014 -0.415 0 0 0 42 85 88 255 
-0.05220011 -0.1166197 -0.414 0 0 0 43 86 89 255 
-0.05126674 -0.1166197 -0.414 0 0 0 43 86 89 255 
-0.0502118 -0.116338 -0.413 0 0 0 43 86 89 255 
-0.04916136 -0.1160563 -0.412 0 0 0 43 86 91 255 
-0.04823251 -0.1160563 -0.412 0 0 0 42 85 90 255 
-0.04730365 -0.1160563 -0.412 0 0 0 43 85 93 255 
-0.04626223 -0.1157746 -0.411 0 0 0 45 87 95 255 
-0.04533562 -0.1157746 -0.411 0 0 0 45 87 95 255 
-0.04440902 -0.1157746 -0.411 0 0 0 44 86 94 255 
-0.04348242 -0.1157746 -0.411 0 0 0 44 86 94 255 
-0.04255581 -0.1157746 -0.411 0 0 0 45 87 95 255 
-0.04162921 -0.1157746 -0.411 0 0 0 45 87 95 255 
-0.04070261 -0.1157746 -0.411 0 0 0 45 87 95 255 
-0.039776 -0.1157746 -0.411 0 0 0 47 89 97 255 
-0.0388494 -0.1157746 -0.411 0 0 0 47 89 97 255 
-0.03783052 -0.1154929 -0.41 0 0 0 55 92 101 255 
-0.03690618 -0.1154929 -0.41 0 0 0 68 96 106 255 
-0.03598183 -0.1154929 -0.41 0 0 0 71 97 105 255 
-0.03505748 -0.1154929 -0.41 0 0 0 76 102 110 255 
-0.03413313 -0.1154929 -0.41 0 0 0 68 93 104 255 
-0.03320878 -0.1154929 -0.41 0 0 0 70 95 106 255 
-0.03228443 -0.1154929 -0.41 0 0 0 71 95 108 255 
-0.03136008 -0.1154929 -0.41 0 0 0 69 96 108 255 
-0.03050997 -0.1157746 -0.411 0 0 0 67 94 106 255 
-0.02958336 -0.1157746 -0.411 0 0 0 68 95 107 255 
-0.02865676 -0.1157746 -0.411 0 0 0 67 94 106 255 
-0.02779763 -0.1160563 -0.412 0 0 0 74 101 113 255 
-0.02686877 -0.1160563 -0.412 0 0 0 64 91 103 255 
-0.02593991 -0.1160563 -0.412 0 0 0 67 94 106 255 
-0.02501105 -0.1160563 -0.412 0 0 0 66 94 104 255 
-0.02414065 -0.116338 -0.413 0 0 0 68 96 106 255 
-0.02320953 -0.116338 -0.413 0 0 0 54 89 98 255 
-0.02233236 -0.1166197 -0.414 0 0 0 51 88 97 255 
-0.021399 -0.1166197 -0.414 0 0 0 52 89 98 255 
-0.02051506 -0.1169014 -0.415 0 0 0 50 89 99 255 
-0.0196738 -0.1174647 -0.417 0 0 0 50 89 99 255 
-0.01877859 -0.1177464 -0.418 0 0 0 51 90 100 255 
-0.01787888 -0.1180281 -0.419 0 0 0 50 89 99 255 
-0.01697466 -0.1183098 -0.42 0 0 0 52 91 101 255 
-0.01606592 -0.1185915 -0.421 0 0 0 52 91 101 255 
-0.01511677 -0.1185915 -0.421 0 0 0 52 91 101 255 
-0.01420128 -0.1188732 -0.422 0 0 0 53 92 102 255 
-0.01324987 -0.1188732 -0.422 0 0 0 52 92 105 255 
-0.01229847 -0.1188732 -0.422 0 0 0 56 94 107 255 
-0.01137396 -0.1191549 -0.423 0 0 0 57 95 108 255 
-0.01046957 -0.1197183 -0.425 0 0 0 60 96 107 255 
-0.009533782 -0.1199999 -0.426 0 0 0 64 98 109 255 
-0.008593485 -0.1202816 -0.427 0 0 0 67 98 110 255 
-0.00764868 -0.1205633 -0.428 0 0 0 73 103 113 255 
-0.006699366 -0.120845 -0.429 0 0 0 77 106 113 255 
-0.005331465 -0.1352112 -0.48 0 0 0 82 108 114 255 
-0.0042493 -0.1352112 -0.48 0 0 0 86 111 115 255 
-0.003167135 -0.1352112 -0.48 0 0 0 97 115 120 255 
-0.002080627 -0.1349295 -0.479 0 0 0 115 124 128 255 
-0.001000716 -0.1349295 -0.479 0 0 0 125 134 133 255 
7.935919e-05 -0.1352112 -0.48 0 0 0 127 133 133 255 
0.001161524 -0.1352112 -0.48 0 0 0 130 134 134 255 
0.002243689 -0.1352112 -0.48 0 0 0 132 136 136 255 
0.003325853 -0.1352112 -0.48 0 0 0 133 137 137 255 
0.004417202 -0.1354929 -0.481 0 0 0 133 137 136 255 
0.005501621 -0.1354929 -0.481 0 0 0 134 138 137 255 
0.006586041 -0.1354929 -0.481 0 0 0 134 138 137 255 
0.00767046 -0.1354929 -0.481 0 0 0 134 138 137 255 
0.008754879 -0.1354929 -0.481 0 0 0 135 139 138 255 
0.009839299 -0.1354929 -0.481 0 0 0 135 139 138 255 
0.01092372 -0.1354929 -0.481 0 0 0 135 139 138 255 
0.01200814 -0.1354929 -0.481 0 0 0 135 139 138 255 
0.01306534 -0.1352112 -0.48 0 0 0 135 139 138 255 
0.0141475 -0.1352112 -0.48 0 0 0 135 139 138 255 
0.01522967 -0.1352112 -0.48 0 0 0 139 139 139 255 
0.01631183 -0.1352112 -0.48 0 0 0 139 139 139 255 
0.017394 -0.1352112 -0.48 0 0 0 139 139 139 255 
0.01847616 -0.1352112 -0.48 0 0 0 140 140 140 255 
0.01955833 -0.1352112 -0.48 0 0 0 139 139 139 255 
0.02064049 -0.1352112 -0.48 0 0 0 140 140 140 255 
0.02176791 -0.1354929 -0.481 0 0 0 140 140 140 255 
0.02285233 -0.1354929 -0.481 0 0 0 139 139 139 255 
0.02393675 -0.1354929 -0.481 0 0 0 139 139 139 255 
0.02502117 -0.1354929 -0.481 0 0 0 140 140 140 255 
0.02610559 -0.1354929 -0.481 0 0 0 142 142 142 255 
0.02719001 -0.1354929 -0.481 0 0 0 140 140 140 255 
0.02827443 -0.1354929 -0.481 0 0 0 140 140 140 255 
0.02935885 -0.1354929 -0.481 0 0 0 140 140 140 255 
0.03044327 -0.1354929 -0.481 0 0 0 142 142 142 255 
0.03152768 -0.1354929 -0.481 0 0 0 142 142 142 255 
0.0325443 -0.1352112 -0.48 0 0 0 142 142 142 255 
0.03362647 -0.1352112 -0.48 0 0 0 142 142 142 255 
